2649.5618815568637 678.1894042949554 44.08442960148787 0 2100 9155
2649.578555910516 677.9962459549587 34.21578911701366 0 2100 9813
2649.635072316717 677.3415510005566 0.7668107705253533 0 2100 12045
2649.6355304137996 677.3362443317716 0.4956880925711289 0 2100 12063
2645.9009352538383 679.2727635139347 58.31333452596529 0 2097 8206
2645.9515379599434 678.6864808854052 28.361664156895472 0 2097 10205
2645.9528343150305 678.6714613236785 27.594353409425736 0 2097 10256
2645.998225455788 678.1455598578541 0.7274012186475431 0 2097 12048
2645.9997511834927 678.1278827864475 -0.17567485779881054 0 2097 12109
2646.0376482886663 677.688807168856 -22.606917956680093 0 2097 13605
2647.726675209774 681.2893489227837 161.52457093947257 0 2099 1319
2647.8024980200044 680.4115294330909 116.67786551769274 0 2099 4311
2647.9986005759342 678.1412014796636 0.6896354388453858 0 2099 12051
2647.9992944312967 678.1331685439484 0.2792427488710416 0 2099 12078
2648.165302367926 676.2112534662327 -97.90900705423127 0 2099 18630
2649.573611550679 678.0537606095324 40.49163957122889 0 2101 9395
2649.6416523568637 677.2657855586648 0.23317298709133638 0 2101 12081
2649.295080711633 680.4956969019851 141.04497863604868 0 2103 2686
2649.3708737683164 679.6188523350166 96.24513485547841 0 2103 5675
2649.5331748122626 677.7412029192802 0.31205427486145254 0 2103 12077
2649.533845188406 677.7334473846101 -0.08419239729201422 0 2103 12103
2649.233536578684 680.4591898742805 157.4513805549027 0 2102 1591
2649.4512715409915 677.9390091954053 28.692197290128718 0 2102 10183
2649.4978675882853 677.3996816714401 1.1372794701242128 0 2102 12021
2649.499603296465 677.3795916584584 0.11085557719226813 0 2102 12090
2649.500321594793 677.3712776901857 -0.3139154614286781 0 2102 12118
2650.709941540616 680.7353334088597 171.62731783743686 0 2105 645
2650.8639611794547 678.9510126236222 80.45729369418771 0 2105 6728
2650.869148544681 678.8909168873666 77.38669687625125 0 2105 6933
2650.998898212696 677.3877642292849 0.5829823972653685 0 2105 12058
2651.0062294727445 677.3028314260085 -3.7566664984499027 0 2105 12348
2651.032499373328 676.9984940701297 -19.306809899082054 0 2105 13385
2649.2075394275776 680.7619724840856 172.99295052098972 0 2104 554
2649.3198056938104 679.4618220006391 106.5628350779668 0 2104 4987
2649.497906767757 677.3992416266475 1.176993900893251 0 2104 12019
2649.5000115782414 677.3748659129009 -0.06846306644857236 0 2104 12102
2649.516733434573 677.1812108611839 -9.963108036761014 0 2104 12762
2642.963989890564 677.7921110980989 0.3083727415230726 0 2094 12076
2642.9643494784586 677.7879459315938 0.0955992818771847 0 2094 12090
2643.068984017716 676.5759466276818 -61.81820048194771 0 2094 16221
2643.083589040345 676.4067742168722 -70.46020772949097 0 2094 16798
2652.1212964947476 680.1968105413717 147.38676543244708 0 2106 2263
2652.369821714461 677.3195946575013 0.37652411077499437 0 2106 12072
2652.370428258978 677.3125725954349 0.017734544532856944 0 2106 12096
2652.4748270827963 676.1039308547915 -61.73735132145893 0 2106 16217
2652.502682421903 675.7814451761935 -78.21463330063193 0 2106 17316
2644.407707040632 679.1945882469871 54.451691764503934 0 2095 8464
2644.497711923724 678.1515166433969 1.1650417242197193 0 2095 12020
2644.4987772063228 678.1391710240238 0.5343499320090643 0 2095 12062
2644.4990450507053 678.136066960555 0.3757748704390451 0 2095 12072
2644.4999117316215 678.126022947138 -0.13733643094064973 0 2095 12106
2644.549124954408 677.555688167001 -29.27361981777358 0 2095 14051
2644.6218022670923 676.7134267420411 -72.30162445311728 0 2095 16922
2652.2582958656367 680.1714186287572 142.6716867313313 0 2107 2577
2652.2926411936996 679.7740571377755 122.36868182762083 0 2107 3932
2652.4991196977167 677.3851847397342 0.3103316539907155 0 2107 12076
2652.516845688027 677.180102234017 -10.168265829011176 0 2107 12775
2652.6392831026346 675.7635510940503 -82.54630294086661 0 2107 17605
2645.9409280991035 677.2779641695539 1.1286029421288788 0 2098 12022
2645.9418480354593 677.2673087905968 0.5842497961629931 0 2098 12058
2645.942881473904 677.2553387470322 -0.027265842833514853 0 2098 12099
2645.990463232198 676.7042118534707 -28.182778616392312 0 2098 13978
2652.4268438403938 679.7520857167556 101.17750744276351 0 2109 5346
2652.478707660106 679.1524332560864 70.53860703735701 0 2109 7390
2652.5961023133764 677.795109536132 1.1869258532754827 0 2109 12018
2652.5986357336997 677.7658179849243 -0.3097092462816704 0 2109 12118
2652.6259031577597 677.4505504627037 -16.41812344939612 0 2109 13193
2652.666744800112 676.9783370493805 -40.5455984284263 0 2109 14803
2652.7181757472426 676.3836894863476 -70.9287764441541 0 2109 16830
2653.282374312015 679.8937323627139 128.44722275409563 0 2111 3526
2653.498659246522 677.3905174658064 0.5418145021191378 0 2111 12061
2653.499406343671 677.381870794612 0.10000025336600515 0 2111 12090
2653.4998523462887 677.3767088983442 -0.16375434888817608 0 2111 12108
2653.610252918895 676.0989668373691 -65.4518445370914 0 2111 16464
2652.2955764543867 678.1757233319363 55.90192200013688 0 2108 8367
2652.3890325250636 677.0953313150953 0.7002428785560255 0 2108 12050
2652.5501925636427 675.2322525674615 -94.49212581909512 0 2108 18402
2653.246662508691 679.527019866095 149.77500662611448 0 2112 2103
2653.2615704688715 679.3544079477514 140.95469839813862 0 2112 2692
2653.438674430468 677.3038085238956 36.17097810766961 0 2112 9683
2653.4979078642737 676.6179738077216 1.1254630114338795 0 2112 12022
2653.4986863202416 676.608960450001 0.6648888284489942 0 2112 12052
2653.4995343953005 676.599141007166 0.16312444704408335 0 2112 12086
2653.500705060492 676.5855864522894 -0.5295006801950422 0 2112 12132
2653.5324794901367 676.2176860025387 -19.328870938927196 0 2112 13387
2655.431140405202 679.7036565510579 111.14644713936067 0 2113 4681
2655.4381907225343 679.6220126023179 106.97440691812852 0 2113 4959
2655.5170446756233 678.7088695762056 60.31241308425216 0 2113 8073
2655.6175728666676 677.54473495792 0.8246430122162849 0 2113 12042
2655.6185928153736 677.5329237675916 0.2210862040107031 0 2113 12083
2655.231287625464 679.7064594806268 158.60842288338148 0 2114 1514
2655.309883779776 678.7960176184249 112.08332644720295 0 2114 4618
2655.3504602886424 678.325987594472 88.06400890460145 0 2114 6221
2655.3760763169835 678.0292567334142 72.90056739399486 0 2114 7233
2655.454173394828 677.1245960714807 26.670899926067875 0 2114 10318
2655.4583236808207 677.0765200028653 24.21413269966598 0 2114 10482
2655.6016798009123 675.4159118716342 -60.64571025765892 0 2114 16144
2655.483756712231 676.7819095542196 9.417450944064683 0 2115 11469
2655.4977813107407 676.6194509287582 1.1154856021877606 0 2115 12023
2655.499824650516 676.5957812193561 -0.09408456713813962 0 2115 12104
2655.5361666288745 676.1748017634119 -21.60698880946751 0 2115 13539
2652.5141757157567 677.211029621803 0.2068258982301927 0 2110 12083
2652.546059684448 676.842228039279 -18.637072136973757 0 2110 13340
2652.6052023798643 676.1581250069692 -53.591281655790965 0 2110 15673
2656.916265180705 677.5632712139009 49.07112336298897 0 2116 8823
2656.938979066354 677.3002791375748 35.63174424593839 0 2116 9720
2656.9975238281477 676.6224202850615 0.9919093351694528 0 2116 12031
2656.9990749770504 676.6044603517885 0.07412369104068262 0 2116 12092
2656.7919596623865 678.2177735905424 103.1627563776525 0 2117 5213
2656.7945641955703 678.187661089501 101.62395600844839 0 2117 5316
2656.8351750758234 677.7181354249956 77.63039051550203 0 2117 6917
2656.9100485389845 676.8524804003936 33.393936372019766 0 2117 9868
2656.964926499071 676.2180048481304 0.9711491471028637 0 2117 12032
2657.0137810857077 675.6531689688836 -27.892931532591973 0 2117 13958
2657.0384311493826 675.3681754534764 -42.456588205520916 0 2117 14930
2657.087088924202 674.8056150284589 -71.2043892775126 0 2117 16848
2656.701673267561 680.0440372221578 176.12084489956743 0 2118 345
2656.772195211798 679.2284181822737 134.44112297369867 0 2118 3126
2656.8853373422735 677.9198768930739 67.5721137974103 0 2118 7588
2656.998168264059 676.6149348769205 0.8870344858921442 0 2118 12038
2656.9990619883483 676.6045985404105 0.35882755299499536 0 2118 12073
2659.8236642674888 678.6363618735714 104.26759255970995 0 2119 5140
2659.997044970954 676.6279800300046 1.6338255063937481 0 2119 11988
2659.9983788610725 676.6125287102102 0.8442210984856899 0 2119 12041
2659.9991677059224 676.6033910054797 0.3772595683800546 0 2119 12072
2660.000037755577 676.5933126525023 -0.13777164198288006 0 2119 12107
2660.0022115939996 676.5681316633171 -1.4245885819371722 0 2119 12192
2660.058799386323 675.9126383333347 -34.922078090672585 0 2119 14428
2660.1068338083246 675.3562242740629 -63.35634776275148 0 2119 16325
2659.8530312615644 677.5145091102579 86.78157673797088 0 2122 6306
2659.8772707968947 677.2337969642581 72.43589975620274 0 2122 7263
2659.998161246066 675.8337941607731 0.8893411959058142 0 2122 12037
2659.9985292313636 675.829532612802 0.6715565666809198 0 2122 12052
2660.0634841425217 675.0773056308968 -37.770689175648016 0 2122 14617
2660.121156260491 674.4094189004427 -71.90276159231232 0 2122 16894
2659.866397419676 675.7973004981557 12.843770507886262 0 2121 11240
2659.8870263271306 675.5583895526953 0.6344180179530952 0 2121 12054
2659.8874718537754 675.5532297451687 0.3707301875299436 0 2121 12072
2659.8885023653934 675.5412950120524 -0.2391847881449678 0 2121 12112
2661.4994810851117 675.8185142764492 -0.08458893020596747 0 2124 12103
2661.651592606128 674.0555262389881 -90.18017803953688 0 2124 18115
2659.998580180649 675.8289474881155 0.7838601583449076 0 2123 12045
2659.9995065022067 675.8182167829628 0.2354731638010037 0 2123 12082
2660.0840112663905 674.8392956936369 -49.79176982090419 0 2123 15420
2660.1065890656787 674.5777496839246 -63.157939905736555 0 2123 16312
2662.7819222699836 678.3393124206186 128.95846999712424 0 2125 3492
2662.9984796835433 675.8301155286596 0.7257917959065594 0 2125 12048
2662.9992368942917 675.8213419160448 0.2774157251836584 0 2125 12078
2662.999796400253 675.8148590596184 -0.053891094392270134 0 2125 12100
2662.7534375998225 678.6687444551413 145.6518431299306 0 2126 2378
2662.832767780152 677.74976253604 98.68713501152448 0 2126 5512
2662.9560214890353 676.3219587739055 25.719010671739227 0 2126 10381
2662.998584608868 675.8288962675038 0.5209777007176797 0 2126 12062
2662.998847111646 675.8258553654696 0.36557194845812546 0 2126 12072
2663.1669259862165 673.8787849558062 -99.13975190518909 0 2126 18712
2659.845909955774 678.3793334555453 91.25392755650277 0 2120 6008
2659.9999072053183 676.5948252975426 0.06031386907841352 0 2120 12093
2664.2341024826464 678.8935798575106 157.14539134224935 0 2127 1611
2664.4775620504 676.0724990975503 12.976880825300753 0 2127 11231
2664.4980345424137 675.8352746834049 0.8537644186361888 0 2127 12040
2664.4994169309916 675.8192562954 0.03516072166641493 0 2127 12094
2664.4999330079477 675.8132762684733 -0.2704425730396167 0 2127 12115
2664.631356055012 674.2904154792664 -78.09471999915775 0 2127 17308
2664.161448138606 678.1735147683027 154.34415569374255 0 2128 1798
2664.2510915534335 677.1346273715234 101.25399539912259 0 2128 5340
2664.318468746152 676.3537856724414 61.35071897330194 0 2128 8003
2664.338090220204 676.1263902509517 49.73015315011699 0 2128 8778
2664.3418121040877 676.083256929147 47.52591525508603 0 2128 8926
2664.3526694553725 675.9574298906092 41.09578850017809 0 2128 9355
2664.4199417679556 675.1778036589554 1.254625986609227 0 2128 12013
2664.4210641829727 675.1647958678363 0.5898901184734768 0 2128 12057
2664.4218902741964 675.1552222057624 0.10064820862749002 0 2128 12090
2664.3538738986367 679.8186664608099 167.71627118645588 0 2129 906
2664.6363845181513 676.5442428182631 0.38267471000656883 0 2129 12071
2664.70257159999 675.777105122783 -38.820532813100186 0 2129 14687
2666.218027449351 679.0811441572772 167.12686602653176 0 2130 945
2666.2216743854365 679.0388686368428 164.96633581780225 0 2130 1089
2666.242150934049 678.8015031527575 152.8355496416549 0 2130 1899
2666.2670581000116 678.5127776640155 138.07996215162586 0 2130 2883
2666.43091919879 676.6132891432445 41.00481587111935 0 2130 9361
2666.498290666766 675.8323147020724 1.0923829771573708 0 2130 12024
2666.4990944041597 675.8229977259009 0.6162301524122427 0 2130 12056
2666.499589834853 675.8172546610622 0.3227254256288461 0 2130 12075
2666.5009364848697 675.801644206432 -0.4750615313149922 0 2130 12128
2666.6169664293384 674.4566175391725 -69.21391362102977 0 2130 16715
2666.194559709775 678.6041640338384 180.66928685626732 0 2132 42
2666.2658888586225 677.7770829671862 138.3994905942933 0 2132 2862
2666.4411029695825 675.7454272397973 34.56725801907217 0 2132 9791
2666.4445626075403 675.7053117877165 32.517069646029626 0 2132 9928
2666.449954560137 675.6427906168225 29.321787753718297 0 2132 10141
2666.4976311903533 675.0899669982758 1.0685213364853325 0 2132 12026
2666.497970665067 675.0860306957553 0.8673479421506158 0 2132 12039
2666.5156415359475 674.881132095774 -9.604445482683843 0 2132 12738
2666.6427301701183 673.4075044861919 -84.91742426381074 0 2132 17763
2666.159239349031 679.0140823035125 179.37702884893156 0 2134 128
2666.4335913043574 675.8325989704953 16.784777156262777 0 2134 10977
2666.450662098414 675.6346399411622 6.667922546928679 0 2134 11652
2666.456898316081 675.5623225321382 2.9720834872793205 0 2134 11899
2666.45929257055 675.5345579015615 1.5531498232129195 0 2134 11993
2666.4603477289206 675.5223219079626 0.9278195785756793 0 2134 12035
2666.461760451107 675.5059394765533 0.09058231148424056 0 2134 12091
2666.5793051381006 674.1428492732786 -69.57123332986512 0 2134 16739
2666.2552685892456 678.6497292762297 144.68988063259317 0 2131 2442
2666.268722879013 678.4937505046402 136.71828185380537 0 2131 2974
2666.272886689855 678.4454784582101 134.25124494583304 0 2131 3139
2666.335480112628 677.7198180656848 97.16495788301991 0 2131 5613
2666.4973431231597 675.8433018031969 1.2619411199452202 0 2131 12012
2666.499019280931 675.8238697087027 0.2688261007593269 0 2131 12079
2666.5468847607162 675.2689538515616 -28.091229078797255 0 2131 13971
2666.657582830522 673.985604879278 -93.67927670841317 0 2131 18347
2667.9982060759485 675.0832944112168 0.8284871477202955 0 2136 12042
2667.998806511089 675.0763344202319 0.4727952154781576 0 2136 12066
2667.999500347045 675.0682917663721 0.06177354921356937 0 2136 12093
2668.0280808889415 674.7369981751104 -16.869061256763672 0 2136 13223
2668.100262261105 673.9003021427986 -59.62860348617974 0 2136 16076
2668.7026991727216 678.5077968397687 161.77238731895466 0 2139 1303
2668.7277556676827 678.2174274395375 146.93316225183975 0 2139 2293
2668.7444381048635 678.0241015459435 137.05331112408408 0 2139 2952
2668.7476305600444 677.9871054977081 135.162641219047 0 2139 3079
2668.7584881184566 677.8612817251086 128.7324620097075 0 2139 3508
2668.806086381536 677.3096850583047 100.54331026557168 0 2139 5389
2668.9717411787856 675.3899798402508 2.4374569266045967 0 2139 11935
2668.9739497209684 675.3643859545083 1.129490486020842 0 2139 12022
2668.9750912720483 675.351156989212 0.4534289131377136 0 2139 12067
2669.099460370145 673.9098947345394 -73.20176671280336 0 2139 16982
2669.12006536072 673.6711119852215 -85.40467430723317 0 2139 17796
2667.704118161369 678.4907289557334 174.77168881826347 0 2138 435
2667.8574590287562 676.7140480884362 83.97427626015799 0 2138 6494
2667.990041625669 675.1778825033194 5.468415721684323 0 2138 11732
2667.9987106643416 675.0774388615836 0.3352356748890202 0 2138 12074
2668.1246127829995 673.6186765030341 -74.21492700848825 0 2138 17049
2666.229144067131 678.9534274770502 160.4117383583305 0 2133 1393
2666.2467739834037 678.7489856254257 149.96343423670163 0 2133 2090
2666.2526556116673 678.6807804817292 146.47770918413457 0 2133 2323
2666.2979789072433 678.1551978115713 119.61702711130384 0 2133 4115
2666.613585003841 674.4953338749274 -67.4257488662015 0 2133 16596
2666.6518227107945 674.0519178376327 -90.0871832703981 0 2133 18108
2667.83902639774 676.9288443846915 95.14908192281258 0 2135 5748
2667.863936322455 676.6400361735116 80.38939095114829 0 2135 6733
2667.99821539135 675.0831909349312 0.8260207883852217 0 2135 12042
2667.9988271429384 675.0760982245424 0.46354420552970055 0 2135 12066
2670.4367030187773 677.3277609756069 88.72792980918494 0 2141 6177
2670.5852700376736 675.6049328030977 0.6820405133917689 0 2141 12052
2670.593196320844 675.5130172214925 -4.015345593762561 0 2141 12365
2670.63469259038 675.0318139050258 -28.607452111666987 0 2141 14006
2670.6532817351103 674.8162485495278 -39.624014139758 0 2141 14741
2668.767008232762 677.7631922389081 137.59817201557996 0 2140 2916
2668.7936628405255 677.4542289945318 121.8086307924805 0 2140 3970
2668.9707908154583 675.4010742720831 16.882327364521814 0 2140 10971
2668.981463569526 675.2773625014013 10.560047486515685 0 2140 11393
2668.9978945014145 675.0869055991903 0.8267631446985035 0 2140 12042
2668.998956416359 675.0745965571869 0.19771056427856593 0 2140 12084
2669.1459678343435 673.3705337901218 -86.8882771610431 0 2140 17895
2670.4793523339085 675.3019362512518 11.994627730533523 0 2142 11297
2670.497894553422 675.0869153616823 1.0059689083111323 0 2142 12030
2670.498243090891 675.0828736213451 0.7994154627293142 0 2142 12044
2670.4988164693445 675.0762245605279 0.4596147068328378 0 2142 12067
2670.4973667562845 675.0930315218909 1.205351757993327 0 2143 12017
2670.49803397638 675.0852953428046 0.8100038710443584 0 2143 12043
2670.498930353946 675.0749021645657 0.2788733207422638 0 2143 12079
2668.0938154233027 675.5066192935756 0.403730760631106 0 2137 12070
2668.1190051895273 675.2147209320262 -14.513836095416906 0 2137 13065
2668.1771693940345 674.5407156298329 -48.95911048281843 0 2137 15364
2672.169387825141 677.3370068274932 154.56007156047832 0 2144 1784
2672.2358527271635 676.5656308702727 115.14202602942008 0 2144 4414
2672.2578248495347 676.3106276067397 102.11111657673696 0 2144 5284
2672.2885567408457 675.9539605335074 83.88508969516519 0 2144 6500
2672.4285967581272 674.3286891633227 0.8321759109191476 0 2144 12042
2672.429709409814 674.3157759905971 0.1723004951999485 0 2144 12086
2672.4662358231876 673.8918590626813 -21.49025796226519 0 2144 13531
2672.5723362575086 672.6604824775156 -84.41477336308537 0 2144 17730
2672.2231805817046 678.2732712299769 163.42188290355125 0 2146 1193
2672.2794412211983 677.6207156983612 130.0746075272835 0 2146 3418
2672.320243871281 677.1474541916346 105.88972053272262 0 2146 5032
2672.3641439860216 676.6382658324193 79.86887845802386 0 2146 6768
2672.4964630663617 675.1035241623791 1.4396098016911765 0 2146 12001
2672.497584668696 675.0905149286712 0.7748043133111082 0 2146 12046
2672.4981971982347 675.0834103251275 0.41174069752460696 0 2146 12070
2672.5694405995937 674.2570728347233 -41.81624222680301 0 2146 14888
2673.335549792731 676.9687048301508 122.86977168516316 0 2148 3898
2673.5410405104685 674.5867838510893 1.1468746894829849 0 2148 12020
2673.542129469275 674.5741613158513 0.5018274481511469 0 2148 12063
2673.5430570277017 674.5634096337301 -0.047613909001597676 0 2148 12100
2673.5729756721967 674.2166112587357 -17.76999145585691 0 2148 13282
2672.207015658251 678.4625108229392 173.53715758707816 0 2145 518
2672.222559106624 678.2821329488891 164.31953953751542 0 2145 1133
2672.2453098722026 678.018115941238 150.82781862700458 0 2145 2033
2672.3693557851543 676.578593801381 77.26577378662593 0 2145 6942
2672.381274009411 676.4402857565846 70.1979960071862 0 2145 7413
2672.385259372686 676.3940366014658 67.83458503317276 0 2145 7571
2672.480644844113 675.2871117969949 11.26883321395482 0 2145 11345
2672.4855348749425 675.2303641986592 8.368933825284358 0 2145 11539
2672.4978186892185 675.0878135721072 1.0843528576794483 0 2145 12025
2672.4986356572567 675.0783328600843 0.5998722487088344 0 2145 12057
2672.4993676540707 675.0698382180973 0.16578150605892006 0 2145 12086
2672.6508120109165 673.3123639132363 -89.64416308627636 0 2145 18079
2673.1635341967476 676.618956294003 131.81223102565744 0 2147 3302
2673.306153408962 674.965759018829 47.32859151032477 0 2147 8939
2673.3118646831686 674.8995557155758 43.945392124045696 0 2147 9165
2673.353813818598 674.4132944656943 19.09589547765316 0 2147 10823
2673.3846438611517 674.0559222607079 0.8330390162595904 0 2147 12042
2673.385772840927 674.0428354804653 0.16426291734066467 0 2147 12086
2673.2246810282945 677.444063557684 162.83147977396402 0 2150 1232
2673.4596180656786 674.7184837517837 23.555078749596078 0 2150 10525
2673.4980146408593 674.2730327871654 0.792653283072724 0 2150 12044
2673.4987563022178 674.2644285362386 0.35297835592143656 0 2150 12073
2673.575414176128 673.3750959924213 -45.091677400839984 0 2150 15106
2673.642854474504 672.5926994941805 -85.07192975417155 0 2150 17774
2673.658380880915 672.4125726812955 -94.2763618431926 0 2150 18388
2673.411763783347 675.2731121048035 52.2131799284883 0 2149 8613
2673.492674095214 674.3349449596587 4.271281450571109 0 2149 11812
2673.4973498172785 674.280729264288 1.5007694188649339 0 2149 11997
2673.497933496763 674.2739614135265 1.1549210102969312 0 2149 12020
2674.71166742448 677.5942581268932 170.72567910317764 0 2151 705
2674.825639995411 676.2723343175817 103.17608916576657 0 2151 5212
2674.997579764236 674.278071379396 1.2703342705723628 0 2151 12012
2674.9981819948025 674.2710863397658 0.9134025326051756 0 2151 12036
2674.999329882781 674.2577724306732 0.23306899648360968 0 2151 12081
2675.06155014466 673.536103656087 -36.6438141117151 0 2151 14542
2674.761419250703 677.0167325181328 141.12948389754115 0 2152 2680
2674.9593687109814 674.7211859984958 23.826484902891877 0 2152 10507
2674.9976150286493 674.2776576287367 1.162074721315463 0 2152 12019
2674.998561409263 674.2666828035393 0.601258419799251 0 2152 12057
2674.998898911452 674.2627689157493 0.40125777874553137 0 2152 12070
2676.9046540059194 675.3561290313113 56.214653159742625 0 2154 8346
2676.9559733973133 674.7607619239851 25.792578296563846 0 2154 10376
2676.995256591077 674.3050292895481 2.5055472331570456 0 2154 11930
2676.997212096722 674.2823430552148 1.346325786827407 0 2154 12007
2676.9988914668065 674.2628603278782 0.35079717552483203 0 2154 12074
2677.03733499804 673.8168687959426 -22.438482927342932 0 2154 13594
2676.939624435664 677.2940249827827 134.39920560828602 0 2153 3129
2677.0857393493175 675.5992893762432 47.79852108274852 0 2153 8907
2677.1319510086705 675.0632965567187 20.409384457259307 0 2153 10735
2677.1607873462267 674.7288339971033 3.318407847638241 0 2153 11875
2677.164278351525 674.6883430517685 1.2493278274020554 0 2153 12014
2677.165709232856 674.6717467613576 0.40126037391493696 0 2153 12070
2676.781344057409 676.7869185816321 129.44946632067877 0 2155 3459
2676.9971891478235 674.2826124368287 1.4888171799321412 0 2155 11997
2676.9979382178617 674.2739214784381 1.0447418101456094 0 2155 12027
2677.010731583967 674.1254886125868 -6.539620791676697 0 2155 12533
2677.0815964004664 673.30329156808 -48.550805308795816 0 2155 15336
2679.730456533601 676.6289786923644 159.4710079660388 0 2157 1456
2679.779194784447 676.0632037157397 130.56450507666142 0 2157 3385
2679.8119438422373 675.6830382997839 111.14114216950254 0 2157 4681
2679.8177687684597 675.6154200032682 107.68639679481797 0 2157 4911
2679.855800664186 675.1739290892133 85.12979936645272 0 2157 6416
2679.9604233812533 673.9594227358789 23.07839578321844 0 2157 10557
2679.996882818708 673.5361856066104 1.4544183972249982 0 2157 12000
2679.9971973836605 673.5325339987768 1.2678509158838551 0 2157 12012
2679.998087600021 673.5221999771028 0.7398663995703885 0 2157 12047
2680.0269168736127 673.1875371340728 -16.358684859677453 0 2157 13188
2679.736333435046 676.5620920413528 156.31229213593838 0 2159 1667
2679.773309287613 676.1326729229804 134.37224329935935 0 2159 3131
2679.8017524490624 675.8023482254913 117.49516520765818 0 2159 4257
2679.998398510519 673.5185989004315 0.81295526732535 0 2159 12043
2679.999164877547 673.509698695819 0.3582225470073581 0 2159 12073
2680.0973016045455 672.3699876719361 -57.87233695475618 0 2159 15959
2679.889806899682 674.7798254728771 65.28154100522634 0 2160 7741
2679.947002738463 674.1155307828817 31.34160954498094 0 2160 10006
2679.998037219953 673.5227964899227 1.0578189620670742 0 2160 12026
2679.998590733711 673.516367766122 0.7293646654142378 0 2160 12048
2680.150947536145 671.746836677879 -89.67895073472243 0 2160 18081
2680.160220029484 671.6391423382286 -95.18123543071687 0 2160 18448
2681.8318868217243 677.0152933600087 144.36774882115625 0 2161 2464
2681.9342271896007 675.8265133196782 83.63309097363029 0 2161 6517
2682.0726492657714 674.218610155879 1.4854730861872838 0 2161 11998
2682.0734658233096 674.2091250687758 1.0008808989709905 0 2161 12030
2682.074696720623 674.1948270338186 0.27039566910065105 0 2161 12079
2682.0752167313544 674.1887866179843 -0.038208594515424465 0 2161 12100
2682.0943847545773 673.9661319227469 -11.41361554501762 0 2161 12859
2682.1077060220923 673.8113928177146 -19.319221528399197 0 2161 13386
2679.623648210386 676.3079149110813 151.26093705608014 0 2158 2004
2679.7479632085056 674.8642971671258 77.50347281448552 0 2158 6926
2679.785104204198 674.4329944183006 55.46730901214174 0 2158 8396
2679.8754871667124 673.3834151204604 1.8420970380556128 0 2158 11974
2679.8765802753087 673.3707213104694 1.1935436101008179 0 2158 12017
2679.8773086880196 673.3622625602711 0.7613682867541627 0 2158 12046
2679.8782355063586 673.35149980904 0.21147670888021253 0 2158 12083
2679.9923074426065 672.0268304308839 -67.46866555895548 0 2158 16599
2680.0100258376488 671.8210741676443 -77.98118543613907 0 2158 17300
2680.0233354390825 671.6665153687428 -85.87791927092616 0 2158 17827
2681.220237503806 675.9692257404353 129.08368113421915 0 2162 3484
2681.243627542197 675.6974639661024 115.20055758135535 0 2162 4410
2681.281404104675 675.2585495241635 92.7783334052957 0 2162 5906
2681.435619605857 673.466766307281 1.243945094081539 0 2162 12014
2681.4362656632006 673.4592599626076 0.8604786894059657 0 2162 12040
2681.437683445984 673.4427871737076 0.01895576323593673 0 2162 12096
2681.5485421019584 672.1547540142742 -65.7810396058656 0 2162 16486
2681.5846695666946 671.7349999397051 -87.22444419566477 0 2162 17917
2677.7803376447077 677.6115160001502 154.78468007831012 0 2156 1769
2677.8967956230576 676.26010897474 85.73667864352542 0 2156 6376
2678.038495320423 674.6157908332815 1.722847683748057 0 2156 11982
2678.040936820222 674.5874590690843 0.27528106750961 0 2156 12079
2678.042237264838 674.5723683898973 -0.4957532830350999 0 2156 12130
2678.064503380496 674.3139869071113 -13.697345888870984 0 2156 13011
2678.0935707877284 673.9766815640069 -30.931428128130563 0 2156 14161
2678.2091483642616 672.6354909378201 -99.45743882660776 0 2156 18733
2682.3404847061483 675.3519052560152 94.52672096284914 0 2163 5790
2682.4981575785873 673.5213897352021 1.017532116583908 0 2163 12029
2682.498794114141 673.5139998259991 0.6400294910308162 0 2163 12055
2684.327344522109 675.5056785325561 102.21360892730151 0 2165 5277
2684.4908745309053 673.606007395098 5.174125668422477 0 2165 11752
2684.499712753103 673.5033368471136 -0.07051732575516212 0 2165 12102
2684.5276061184472 673.1793093401071 -16.6225726902708 0 2165 13206
2684.3571233196712 676.7211861698902 148.82106706903642 0 2164 2167
2684.570350870575 674.245781583829 22.368641225224735 0 2164 10605
2684.595683998311 673.9516838449973 7.345088017054593 0 2164 11607
2684.6063816238347 673.8274928050992 1.000970230565457 0 2164 12030
2684.606802706565 673.8226043649478 0.7512514091608296 0 2164 12047
2684.6209145361963 673.6587770938504 -7.617625325692245 0 2164 12605
2687.168160219589 675.0414602856832 128.24037213380177 0 2169 3540
2687.3830284834658 672.5459977024692 0.7930256227440964 0 2169 12044
2687.3838660155343 672.5362706729774 0.2962503528977436 0 2169 12077
2687.4049700300834 672.2911703602912 -12.221422599207102 0 2169 12912
2687.531727785092 670.8190160781829 -87.40674421919647 0 2169 17929
2684.269143595687 676.1827104727251 136.8466554473991 0 2166 2966
2684.351955350949 675.2203808212349 87.68981818966202 0 2166 6246
2684.3770051613214 674.9292847659772 72.82031750191072 0 2166 7238
2684.41593858014 674.4768516151017 49.709543835995476 0 2166 8780
2684.4985413133472 673.5169509438947 0.6767815127625738 0 2166 12052
2684.4995735617285 673.5049555065111 0.06404162431937266 0 2166 12093
2688.708812257372 676.105762534888 172.92835608557579 0 2171 558
2688.7292473965585 675.8680668408509 160.7887376056217 0 2171 1368
2688.848366033753 674.4825129240689 90.02558810356982 0 2171 6090
2688.9983030074795 672.7384889315994 0.95461871037989 0 2171 12033
2688.9996096244736 672.7232907364529 0.17841495368412552 0 2171 12085
2689.0522192244375 672.1113509174007 -31.074637256957743 0 2171 14170
2689.079376903262 671.7954605651254 -47.2078212157887 0 2171 15247
2687.218989874495 675.9858346154041 166.54792932404132 0 2170 984
2687.4043090263817 673.83127399599 56.51039214739497 0 2170 8326
2687.4816155202157 672.9324919459698 10.607871535229066 0 2170 11389
2687.4974027123576 672.7489466289683 1.233860676051819 0 2170 12015
2687.4978858969735 672.7433290199135 0.946958622962029 0 2170 12034
2687.4986706444347 672.7342053758713 0.48099664842760603 0 2170 12065
2687.5299813012143 672.3701808949775 -18.11043075845498 0 2170 13305
2687.55152510507 672.1197079627009 -30.902563107287136 0 2170 14159
2690.498269317551 672.7388827177949 0.7495054447757923 0 2172 12047
2690.499554542351 672.7239319287379 -0.013999823938632971 0 2172 12098
2690.562571248208 671.9908699178355 -37.44993082962196 0 2172 14596
2691.7520343336096 675.6028269613928 147.02225784026336 0 2174 2287
2691.9981176946076 672.74064300516 0.8722267647594037 0 2174 12039
2691.9986556642807 672.7343859052837 0.5527241208545774 0 2174 12060
2691.999297094745 672.7269254578296 0.1717756409769038 0 2174 12086
2692.007557650978 672.6308473181961 -4.734206402052109 0 2174 12413
2686.3198150466287 674.8093188496015 106.4418703404127 0 2168 4995
2686.329439210737 674.6976559315173 100.73882848477007 0 2168 5376
2686.3796128017484 674.1155243801331 71.00719814595074 0 2168 7359
2686.4972966094174 672.7501156830526 1.2706814660298562 0 2168 12013
2686.497740776825 672.7449622974377 1.0074788347187393 0 2168 12030
2686.498423902828 672.7370364306244 0.6026752441045744 0 2168 12057
2686.626223587911 671.2542597857022 -75.12826044739114 0 2168 17110
2684.4976297411986 673.5275292807387 1.3280624416719604 0 2167 12008
2684.4984446341064 673.5180647380353 0.844621240087946 0 2167 12040
2691.9325698472608 672.7218147760846 39.66447358776489 0 2175 9450
2691.9979255454396 671.9616290475678 0.8499455474986348 0 2175 12040
2691.998425145755 671.9558179394273 0.5532346104164674 0 2175 12060
2691.999778689631 671.9400741746723 -0.25063051835348915 0 2175 12113
2692.0139019794638 671.7757989290608 -8.638404568714748 0 2175 12673
2692.0395729526276 671.4772066413141 -23.884308682129216 0 2175 13690
2692.139218553458 670.318177424716 -83.06349389902056 0 2175 17639
2690.40047049226 674.6576535458856 131.8657472880651 0 2173 3298
2690.5415230564367 673.0170345497199 48.08836877472922 0 2173 8888
2690.5828522455317 672.5363240208404 23.54112896621956 0 2173 10526
2690.620279050767 672.1010031318318 1.3116881402433762 0 2173 12009
2690.757146168196 670.5090661534817 -79.97976777749489 0 2173 17434
2691.7345242071483 675.0254290165906 157.5759793013634 0 2176 1583
2691.8094771847063 674.1536000946534 113.06253839472491 0 2176 4553
2691.9976740983834 671.964554139324 1.2952348302249561 0 2176 12011
2691.998601797503 671.9537634416153 0.7442883397935702 0 2176 12048
2691.998982837198 671.9493313104666 0.5179946220570457 0 2176 12063
2692.0471620413878 671.3889263069985 -28.094906806163124 0 2176 13972
2692.1116755976773 670.6385253748041 -66.40853315077189 0 2176 16529
2693.2162910040906 675.2381246824449 168.21863812028963 0 2179 872
2693.49681443182 671.9745603862062 1.6197794636325398 0 2179 11988
2693.497629505912 671.96507794573 1.1357185972821355 0 2179 12021
2693.4984074483405 671.9560274890381 0.6737096958692916 0 2179 12052
2693.4995037609115 671.9432731654717 0.022625311982380936 0 2179 12095
2693.199097231896 675.4388589932416 178.48704943677842 0 2180 187
2693.3561092202426 673.61183911931 85.2243838698156 0 2180 6410
2693.4898753494676 672.0553122634537 5.769395079052742 0 2180 11712
2693.4962808047303 671.9807772283252 1.9646548277885643 0 2180 11966
2693.497356215134 671.9682635585059 1.3258778664468878 0 2180 12008
2693.498050723569 671.9601821328333 0.9133507174217641 0 2180 12036
2693.4981007812794 671.9595996522705 0.8836172204287038 0 2180 12038
2693.4993118413995 671.9455075378329 0.16426644889261866 0 2180 12086
2693.5121909098884 671.7956443691995 -7.4856988177584185 0 2180 12596
2693.6040419267747 670.7268493360328 -62.04376639003942 0 2180 16237
2693.656178893025 670.1201741737823 -93.01230897245256 0 2180 18303
2696.9972197886195 671.9698475080925 1.5301654022835578 0 2183 11995
2696.997734400701 671.9638600430358 1.2245582286424792 0 2183 12015
2696.9988969232004 671.9503341988404 0.5341834245419932 0 2183 12061
2696.999549155557 671.9427455343236 0.1468491699405945 0 2183 12087
2697.065559871784 671.1747168177221 -39.054228937455775 0 2183 14703
2694.575783368345 674.5617775130025 180.49916062394874 0 2181 53
2694.586436737088 674.437800027625 174.17074363300367 0 2181 475
2694.7259490780616 672.8142394778661 91.2962754371231 0 2181 6005
2694.812722510682 671.8044225614078 39.75028293373404 0 2181 9445
2694.877143116385 671.0547343741022 1.482532559462527 0 2181 11998
2694.878141043977 671.0431210941701 0.8897339733391618 0 2181 12038
2694.878560168881 671.0382435711181 0.6407613501041567 0 2181 12054
2694.7235349450816 675.154220940509 163.97061633437295 0 2182 1156
2694.7625795430313 674.6999299782177 140.78180517033923 0 2182 2703
2694.830062879185 673.9147491509133 100.70306391132193 0 2182 5378
2694.8455739012406 673.7342756025654 91.49097874978973 0 2182 5992
2694.8689006386207 673.4628647921554 77.63709532950107 0 2182 6917
2694.984972246577 672.112350630345 8.70150014481672 0 2182 11516
2694.992123024669 672.0291500333063 4.454611930853417 0 2182 11800
2694.997156991743 671.9705789155022 1.4649099487226067 0 2182 11999
2694.9975420952205 671.9660981668583 1.2361947798063966 0 2182 12015
2694.9981331422205 671.9592212280629 0.8851685689683961 0 2182 12038
2694.9982613669945 671.9577293096106 0.8090151383847513 0 2182 12043
2694.9988599891185 671.9507642328778 0.45349001790418697 0 2182 12067
2694.9991562959503 671.9473166492736 0.27751168726555875 0 2182 12079
2693.2620580743624 674.7052069491754 141.17193204666654 0 2177 2677
2693.338064862082 673.8211067049965 96.034718989218 0 2177 5689
2693.496712355213 671.9757414208698 1.82069004071775 0 2177 11975
2693.497804983156 671.963032126603 1.1718245677059542 0 2177 12019
2693.4983606258384 671.9565689692233 0.8418519049963606 0 2177 12041
2693.5006477730744 671.9299651948639 -0.5163879996931087 0 2177 12131
2693.6511591438107 670.1792381399291 -89.89871834552736 0 2177 18095
2693.591170391916 670.8769409815602 -54.32762543232195 0 2178 15722
2693.6310650009777 670.4128584374585 -78.01898834956478 0 2178 17303
2696.828172260256 671.6244280433255 1.2384791647581608 0 2184 12014
2696.829019418669 671.614570308537 0.7353766984176389 0 2184 12048
2696.7854512582476 675.214997046829 173.79090326610873 0 2185 501
2696.9343772686266 673.4822620488466 85.36383362554248 0 2185 6401
2697.075398709602 671.8414957003629 1.6302215439467886 0 2185 11989
2697.191844613045 670.486662573806 -67.5112936749949 0 2185 16602
2696.8905715540973 674.7728502752208 161.01486632132193 0 2186 1353
2696.901884445668 674.6412609336121 154.2997873941061 0 2186 1801
2696.93573200096 674.247552792062 134.20863705871 0 2186 3142
2696.9475822540103 674.1097129668473 127.17459239889817 0 2186 3611
2696.9482041053802 674.1024797133637 126.8054753606246 0 2186 3636
2697.092986670153 672.4183972437629 40.865789326343844 0 2186 9370
2697.159242179396 671.647726121823 1.5380037512693434 0 2186 11994
2697.160656001264 671.6312808224405 0.6987907725804803 0 2186 12050
2697.325212412109 669.7171928436878 -96.97820718049036 0 2186 18568
2696.9974153721028 671.9675600867748 1.4446501086251544 0 2187 12001
2697.066317203545 671.1662087452063 -39.44713261879673 0 2187 14730
2697.1468117362792 670.2300304108295 -87.21893888859597 0 2187 17917
2697.8183786393733 674.0499389764275 107.42341705854813 0 2188 4929
2697.962804417575 672.3701220098344 21.709500487923037 0 2188 10648
2697.9967509262483 671.9752899934482 1.5629016709280563 0 2188 11993
2697.998423166368 671.9558401600407 0.5704593803935438 0 2188 12059
2697.999739655312 671.9405280703866 -0.21085144170424996 0 2188 12111
2698.157200700497 670.109097846692 -93.66094780372151 0 2188 18346
2699.163312063971 673.5485612622901 118.83741151712238 0 2191 4167
2699.185163309508 673.2939198232983 105.84678091474308 0 2191 5034
2699.309635952043 671.8433895660264 31.847423919290122 0 2191 9971
2699.35974920852 671.25939943511 2.0549435743593563 0 2191 11959
2697.9807031721857 671.4119846099042 2.3011308977785063 0 2189 11943
2697.9830574801526 671.3845963826437 0.9036653083022941 0 2189 12036
2697.9834441687563 671.3800979417013 0.6741354316967829 0 2189 12052
2697.9845232427087 671.3675448165095 0.03362079272574192 0 2189 12094
2698.084184091797 670.2081663400714 -59.12287409826996 0 2189 16042
2698.0867402992435 670.1784293679141 -60.64018279189466 0 2189 16143
2698.1362232674874 669.6027821718789 -90.0121877957215 0 2189 18103
2697.853981167124 672.887601865021 86.4651965352527 0 2190 6328
2697.887861182455 672.4931357806331 66.33974448426824 0 2190 7671
2697.9098726977204 672.2368550159 53.26443472669769 0 2190 8543
2697.956368091599 671.6955076821934 25.645178626782013 0 2190 10386
2697.9948223625947 671.2477833951854 2.8025211034529036 0 2190 11910
2697.9976042081303 671.2153942800966 1.1500454953049086 0 2190 12021
2698.087273585716 670.1713708958014 -52.115478189312626 0 2190 15575
2699.3781593060976 672.6081141152102 72.091756794759 0 2193 7287
2699.4957341920917 671.2372376264921 2.1614520849446706 0 2193 11953
2699.496195459811 671.2318594280276 1.8871027467650379 0 2193 11971
2699.4966830149774 671.2261747283713 1.5971183590945657 0 2193 11991
2699.4973777710065 671.2180741489146 1.1838966032345013 0 2193 12018
2699.41608975583 672.1658509056055 56.69767040027756 0 2194 8314
2699.422211562538 672.0944737430707 53.056771044555575 0 2194 8557
2699.5074668963944 671.1004397736436 2.35179048308035 0 2194 11940
2699.507778425704 671.0968074998294 2.1665107252337066 0 2194 11953
2699.5107447609466 671.0622215347988 0.4023047337778962 0 2194 12070
2699.5714550754747 670.3543700467338 -35.704706743337 0 2194 14480
2699.5782002796077 670.2757243862769 -39.716367116485856 0 2194 14747
2702.239013635813 674.2244509851267 154.65006457173408 0 2197 1778
2702.4143509284363 672.184149894216 50.60099498654739 0 2197 8721
2702.43017268374 672.0000410596186 41.21201165089488 0 2197 9347
2702.4343192593906 671.9517896996417 38.75134095175741 0 2197 9511
2702.4922874672743 671.2772463893515 4.351710356412212 0 2197 11807
2702.494026809589 671.2570066447505 3.3195457392617698 0 2197 11876
2702.495485650684 671.2400309344912 2.4538368172300977 0 2197 11933
2702.4971850704396 671.2202557461663 1.4453631388892916 0 2197 12001
2702.5986620981234 670.0394248619408 -58.77337388402407 0 2197 16019
2699.3420231062078 674.5604124436752 162.05661109027358 0 2192 1284
2699.5062436461767 672.6459628448486 64.39318676155919 0 2192 7801
2699.6122521319458 671.4101375145265 1.3489918632483295 0 2192 12007
2699.613358333077 671.3972416471013 0.6911241538029458 0 2192 12051
2701.4550462994744 671.7113809037807 26.327806583388423 0 2195 10340
2701.4553175037513 671.7082203465828 26.166603491181718 0 2195 10351
2701.480685652984 671.4125853089272 11.087843876019718 0 2195 11357
2701.495345356558 671.2417442287034 2.374155534077829 0 2195 11938
2701.6532921942926 669.4010652381673 -91.50901963712744 0 2195 18203
2702.30400347569 673.469500705899 116.13669748252659 0 2198 4348
2702.4820973611772 671.3959416270831 10.39557907984738 0 2198 11404
2702.495454058639 671.2404287008 2.465199415604019 0 2198 11933
2702.495747642348 671.2370104859477 2.2908875934334105 0 2198 11944
2704.2693095638283 673.8768884101925 136.96416931296764 0 2200 2958
2704.4938398183585 671.2593153790159 3.4949864204748167 0 2200 11864
2704.4949025175115 671.246926435491 2.863278288751303 0 2200 11906
2704.4957080842028 671.237535141427 2.384419311334483 0 2200 11938
2704.5039503513167 671.1414468162345 -2.515092601497514 0 2200 12265
2704.5795385294496 670.2602400631869 -47.44753341127577 0 2200 15263
2704.5980950644994 670.0439080334512 -58.47823203873975 0 2200 15999
2702.2473976238243 674.8807595732649 173.22444604203963 0 2199 538
2702.299477927982 674.2739329229712 142.27971725804053 0 2199 2603
2702.440645109506 672.6290883069244 58.40194011894221 0 2199 8200
2702.5294228568982 671.594672246146 5.652568556061681 0 2199 11719
2702.537634838763 671.498988291761 0.7732277822285596 0 2199 12045
2702.6465405202935 670.230046587403 -63.9356258336515 0 2199 16363
2702.6630062192303 670.038192390464 -73.7191053289516 0 2199 17015
2704.2727064278956 673.8366166509818 145.25976658521046 0 2201 2404
2704.5102958251227 671.0675017021193 4.086166227298008 0 2201 11824
2704.511063843869 671.0585504096098 3.6298160162132262 0 2201 11854
2704.5120786845005 671.0467223971021 3.026806339252232 0 2201 11895
2704.5144530073235 671.0190495594235 1.6160038989913517 0 2201 11989
2704.533175747016 670.8008351989755 -9.508888885572247 0 2201 12731
2701.3526717383534 672.903059352285 81.28197053208318 0 2196 6673
2701.4768777942963 671.4567458038613 7.518853607847461 0 2196 11595
2701.4842393711633 671.3710241514084 3.1469825984662805 0 2196 11887
2701.485920228911 671.3514514557379 2.148759881938986 0 2196 11953
2701.486960145106 671.3393421840061 1.5311775965488152 0 2196 11994
2701.487348292165 671.3348224176752 1.3006659950401342 0 2196 12010
2701.487427878171 671.3338956809084 1.2534016984693608 0 2196 12013
2701.488382169887 671.3227834607543 0.6866698197478058 0 2196 12051
2701.5045939632464 671.134005738103 -8.941140998862465 0 2196 12693
2701.538953271946 670.7339098385185 -29.346343352201757 0 2196 14055
2701.577894649846 670.280458176897 -52.47273110686848 0 2196 15598
2705.735226406963 673.4622176226411 157.1239673279118 0 2202 1613
2705.843735717125 672.1970164720582 92.62495528713765 0 2202 5917
2705.932518693998 671.1618212033369 39.85147174181259 0 2202 9438
2705.994044482504 670.4444403786724 3.279931772425897 0 2202 11878
2705.9949786798397 670.4335477875899 2.7246355943719607 0 2202 11915
2706.024703887789 670.0869566310985 -14.94432334189463 0 2202 13094
2706.7151243902313 673.6986724856539 169.29606269812774 0 2204 801
2706.930252818318 671.1887474067851 41.35898521319265 0 2204 9338
2706.9923406782536 670.4643620796934 4.435276811965565 0 2204 11801
2706.9928495489607 670.4584250338063 4.132650926401993 0 2204 11822
2706.9932448213794 670.4538133506076 3.8975820489698663 0 2204 11837
2706.9947598346375 670.4361375380465 2.9966022467136213 0 2204 11897
2707.1391001430884 668.7521045941223 -82.84271425236972 0 2204 17625
2708.7466224807276 674.1438848455113 179.55893652880704 0 2206 116
2708.9536999876723 671.727724149259 56.419667162556536 0 2206 8333
2709.0445733275874 670.6674226443777 2.381559175145327 0 2206 11938
2709.0727610896706 670.3385305118319 -14.380379285657995 0 2206 13057
2707.0548335042945 671.2978700561833 25.249832468833432 0 2203 10412
2707.0905620757267 670.8810981494595 4.004479142528993 0 2203 11830
2707.091429200314 670.870983186754 3.4888590801066073 0 2203 11864
2707.0927758785374 670.8552742560997 2.688081060420302 0 2203 11917
2707.093152755764 670.8508780030746 2.4639777863632446 0 2203 11932
2709.819229100867 672.4848846673507 107.27692826050891 0 2209 4939
2709.8766177418347 671.8150677098665 73.14518134958571 0 2209 7216
2709.9925238025166 670.4622591468737 4.210349265856252 0 2209 11816
2709.9936439986477 670.4491846716514 3.544115492147398 0 2209 11861
2709.994652198843 670.4374173676001 2.9444910138253704 0 2209 11901
2709.995814025309 670.4238569999872 2.25349770555448 0 2209 11947
2708.8049571208853 673.4636905257406 157.51521766726322 0 2207 1587
2708.820192884182 673.2858860335934 148.45406183504417 0 2207 2192
2709.062662789748 670.4562123519042 4.25008883932253 0 2207 11814
2709.065647204931 670.4213836127327 2.475169492452011 0 2207 11932
2709.110876033486 669.893553878495 -24.42374299873066 0 2207 13727
2709.7102924852866 673.0081495248689 164.30979698360238 0 2211 1133
2709.710741270759 673.0029086930575 164.04275819226018 0 2211 1151
2709.9385145796396 670.3430151018165 28.511835760684022 0 2211 10194
2709.9805767899225 669.8518205711048 3.4837489004014515 0 2211 11864
2708.821784795316 672.454889612334 105.92110169534139 0 2208 5029
2708.9922582535282 670.4653513148248 4.537787453640732 0 2208 11794
2708.9926350365827 670.4609540067365 4.313708496082228 0 2208 11809
2708.9932020835067 670.4543361931268 3.9764765475296144 0 2208 11831
2708.9935013250506 670.4508438458855 3.798512776612398 0 2208 11843
2708.994244852449 670.4421663881143 3.356325044343066 0 2208 11873
2708.994777246562 670.4359529957886 3.03970168130445 0 2208 11894
2708.9955487822676 670.4269486625032 2.5808569572963336 0 2208 11924
2709.0964992496374 669.2487897684996 -57.456013670906856 0 2208 15930
2709.1208552873277 668.9645386582757 -71.940941991942 0 2208 16897
2709.6485374976205 672.9465589820319 179.80355711112003 0 2210 99
2709.9438675504052 669.4990139807006 4.132642455320138 0 2210 11821
2709.9453434903503 669.4817845476223 3.254710400277105 0 2210 11879
2709.945992429816 669.4742091316102 2.8687023106866434 0 2210 11905
2710.0369903966684 668.4119413982892 -51.25953800228518 0 2210 15517
2710.105171351047 667.6160288040985 -91.81555492260031 0 2210 18223
2706.699620251913 673.8790016365558 178.44040873298584 0 2205 190
2706.803165218896 672.6711248203625 116.87602280279432 0 2205 4298
2706.9939618187486 670.4454368291005 3.434724305077367 0 2205 11867
2706.994245437818 670.4421283447919 3.2660938602454905 0 2205 11879
2706.9945303195605 670.4388051310997 3.0967126720888416 0 2205 11890
2707.0175149232514 670.1706842292705 -10.569166542473454 0 2205 12802
2707.107352249521 669.122710321973 -63.98344621791392 0 2205 16366
2710.6478711662326 672.9580739138426 152.35858830942024 0 2214 1931
2710.7125233289325 672.2026687508146 113.87184371344928 0 2214 4499
2710.755937601386 671.6954101504695 88.02778922309629 0 2214 6224
2710.81468682182 671.0089758134507 53.0550033543187 0 2214 8557
2710.8930447260304 670.0934307963515 6.409376657821667 0 2214 11670
2710.8960540674666 670.0582692184068 4.617947718519332 0 2214 11789
2710.897229193033 670.0445388823582 3.9184079713931794 0 2214 11836
